# Quantization nodes!
VERSION .7
FIELDS x y z label
SIZE 4 4 4 4
TYPE F F F I
COUNT 1 1 1 1
WIDTH 1710
HEIGHT 1
VIEWPOINT 0 0 0 1 0 0 0
POINTS 1710
DATA ascii
-1.52975 3.2375 1.33075 0
-2.05602 -0.931024 0.213855 0
-1.97747 3.36924 1.0429 0
0.347037 9.52518 1.59556 0
-1.67802 0.268132 0.757692 0
-2.32806 8.15387 2.53194 0
8.14075 -6.10041 1.28771 0
2.17815 -4.96417 2.5065 0
-3.7834 8.60711 1.14246 0
0.1825 -3.01774 2.4875 0
0.242523 0.778505 2.50607 0
-2.41201 3.5838 0.934637 0
2.17523 -4.28271 2.48061 0
-3.54927 2.2932 1.35607 0
-4.44158 -5.10149 0.760396 0
-4.72232 0.325706 2.49972 0
3.0273 -6.68988 1.0773 0
6.11122 -5.90257 2.41608 0
-5.80366 -5.97458 2.38002 0
0.653992 3.02668 2.56576 0
2.81543 -6.23457 2.41883 0
2.44792 8.29375 2.53244 0
1.55766 0.32197 1.2186 0
8.66096 -6.01096 2.25028 0
-5.99379 1.81931 0.641724 0
0.652797 8.68147 0.639511 0
-6.21293 2.19569 1.24267 0
-3.54498 2.21064 0.958635 0
1.63893 -0.406689 1.20822 0
1.24246 1.81985 2.54196 0
-5.65398 -1.2422 0.895064 0
-5.84011 7.65824 2.53846 0
3.80038 -4.00188 0.894849 0
7.08063 -3.69646 0.938542 0
4.67874 9.81221 0.537008 0
4.48658 -3.8855 1.05 0
-2.4919 8.79959 0.650962 0
-5.95901 0.542007 1.71582 0
-0.90431 -7.20052 1.48431 0
1.43841 -0.164855 2.49058 0
1.09098 -6.9034 1.98891 0
-2.77471 -6.04128 2.50145 0
-1.06378 -7.20944 0.208418 0
3.19283 8.91101 2.43094 0
0.0886 10.7258 2.1294 0
1.34063 1.81953 2.04766 0
-3.25965 -0.416339 2.50295 0
3.98876 9.60148 2.45473 0
-2.11224 9.61535 0.515345 0
0.676676 -6.9574 0.759916 0
1.45856 -3.89198 2.50285 0
-1.91618 3.79657 2.39338 0
-4.61348 -6.53152 2.44022 0
-3.08824 3.31979 0.730481 0
5.84674 -4.10245 2.5038 0
3.45254 9.69434 0.404883 0
-5.75013 6.54798 0.882124 0
-0.869293 9.36114 2.52255 0
1.31312 0.763614 2.50866 0
1.71956 -0.905272 0.64949 0
-1.05648 0.441667 1.96093 0
-0.653819 -7.18403 0.617014 0
-5.28239 -1.3478 2.40503 0
1.97808 6.91088 0.50276 0
-4.64086 3.13845 1.44017 0
2.35381 9.50099 1.47952 0
6.95938 -6.17148 2.24727 0
-6.2 8.26338 1.87923 0
1.19653 9.08912 2.50949 0
-3.99454 1.73011 2.51954 0
1.96299 -2.59786 2.00674 0
-6.30535 -5.29523 0.950723 0
-4.43629 -5.13343 2.15457 0
2.44733 -6.79759 0.595989 0
-4.16403 -7.54912 1.68333 0
-5.72126 6.53103 1.5454 0
-0.991057 -7.20488 0.868293 0
7.70859 -3.92214 0.203906 0
-3.45343 -0.990797 0.550137 0
-1.24493 -6.64101 2.44886 0
-3.09634 -6.97487 2.39686 0
5.72439 -3.76439 1.28537 0
0.0402778 -5.40806 2.49611 0
-2.43682 6.90814 0.574419 0
3.86265 -5.81146 2.50878 0
-6.26551 2.50579 1.42523 0
-1.4647 2.5655 0.8165 0
-1.78324 -4.69814 1.05505 0
3.74151 6.9305 2.50912 0
1.88729 -6.96938 1.85833 0
-3.47057 0.678369 2.50851 0
-5.69513 -0.552125 2.44787 0
0.0273684 -7.08053 2.46158 0
-5.42601 1.03412 0.755405 0
4.21865 7.25489 0.888227 0
-1.37463 3.24453 2.41517 0
1.02205 5.57034 1.33783 0
-4.91519 2.92532 2.50633 0
3.53455 7.36682 2.53636 0
-1.64755 -0.896569 2.38554 0
7.12354 -6.19921 0.94709 0
1.78212 8.47098 2.48627 0
1.39877 1.06811 0.14856 0
-0.651485 6.79158 2.45347 0
2.06537 -1.22935 2.51351 0
0.203691 2.64899 2.53188 0
4.29217 8.55261 1.41043 0
4.53671 9.79941 1.69544 0
-2.04366 -7.40597 0.55 0
-0.631929 -3.0409 2.0966 0
-1.75256 -0.901628 1.09837 0
-5.30076 7.25894 2.5147 0
-3.60838 -7.03311 2.42168 0
-4.29823 6.67459 0.977038 0
-1.7875 5.51397 2.51201 0
-1.71395 -4.69913 2.00698 0
-3.12202 -4.94794 0.141975 0
-2.70184 6.88897 0.936397 0
-6.42623 -6.8206 1.00475 0
-1.66359 5.61576 0.610326 0
0.663431 -2.24029 2.50146 0
-5.72622 -5.30762 2.54207 0
-2.72602 3.43619 1.67282 0
-2.81057 3.04316 0.796642 0
-6.12388 1.99813 2.45224 0
-0.701799 -7.47338 2.50971 0
4.20607 9.33857 1.97821 0
-1.73104 6.43357 0.106601 0
-0.610051 -3.46031 1.90438 0
7.88679 -3.60031 1.2805 0
-5.77081 2.775 2.4179 0
-1.37472 2.29958 0.455726 0
-2.56724 -1.00086 1.4444 0
-5.94177 1.11494 2.4628 0
-1.24877 1.40697 0.189344 0
4.90882 -3.85131 0.706209 0
-5.57767 8.39046 1.35878 0
-0.609689 -3.56782 0.591986 0
-1.30918 1.1462 0.898101 0
1.87578 -6.34533 2.43733 0
-5.66992 -0.35901 0.619416 0
1.69564 -0.888492 2.4754 0
2.06093 -3.35265 1.41192 0
0.245588 1.82255 2.53431 0
6.13636 -6.32657 2.03916 0
-6.02536 1.08595 1.46223 0
4.46657 7.49704 1.9929 0
0.448889 -1.49778 2.47333 0
1.28939 6.32879 2.55152 0
-5.63576 -0.827532 0.822785 0
7.98193 -4.18266 0.278285 0
-3.11523 6.80395 1.175 0
1.80848 -1.54394 1.95515 0
0.889631 4.81236 2.59332 0
4.75699 -6.48172 1.66613 0
-2.18358 10.1174 0.355637 0
-4.0348 8.49426 2.4848 0
-4.49806 -1.24272 2.40097 0
-2.32029 1.15958 0.537825 0
-4.34469 0.0371508 2.48743 0
6.01389 -3.65205 2.23901 0
1.31644 7.82569 2.50347 0
-1.36431 -6.22518 2.45562 0
3.00931 -6.70572 0.591013 0
-1.77161 -6.67288 2.4661 0
-1.17823 -4.55403 1.08855 0
-4.58301 3.15752 1.05719 0
3.16843 9.59725 2.13242 0
-0.527632 -7.16316 1.66009 0
-6.44003 -6.36127 0.625518 0
-1.3087 2.03354 2.2913 0
-1.52228 6.77475 2.53317 0
0.998958 3.66016 2.05286 0
-2.22444 3.39873 2.10777 0
6.06745 -4.71198 2.50729 0
4.95719 -3.93812 2.46 0
0.863103 9.00517 0.755862 0
0.179526 10.267 0.767888 0
-1.44717 0.322391 0.523696 0
-0.478302 2.08726 2.57311 0
4.93661 -5.92514 2.4459 0
0.573578 -5.45794 2.48543 0
-0.724118 -2.06529 1.27059 0
-1.85119 -3.14643 2.38214 0
-1.29478 2.1 1.52463 0
6.47013 -6.29245 0.828931 0
-1.66228 3.67306 0.489871 0
-4.42049 -0.796528 0.695139 0
0.492448 7.18047 2.56641 0
2.10711 -2.38069 2.50955 0
-0.738056 -1.9275 2.20528 0
6.61394 -5.6226 2.42212 0
8.22063 -6.15888 2.14276 0
0.35 -0.731982 2.50631 0
1.64716 -3.34459 2.5 0
1.04106 4.06551 0.689599 0
-6.15351 -6.11924 2.65857 0
1.71641 -4.4149 2.50101 0
-2.90946 3.52772 1.16202 0
-5.62853 6.65694 0.113782 0
-0.0464109 -3.81126 2.50532 0
-2.56009 -7.46641 0.13238 0
6.21367 -3.70469 0.446094 0
-1.99449 2.56618 0.376838 0
-4.31756 -0.826336 1.34618 0
-5.44823 -5.19929 1.10248 0
-4.40903 3.18889 1.88056 0
-1.96626 3.81932 1.49049 0
-0.483022 -1.86922 2.50429 0
1.10959 3.44726 0.894521 0
-4.84401 1.18348 2.50716 0
-5.17593 7.97333 2.51111 0
-3.2794 -4.90025 1.84874 0
0.787958 -6.94581 1.5555 0
4.04851 -3.90579 1.96772 0
-0.0889189 5.86162 2.5927 0
3.86793 -4.86172 2.51448 0
7.97958 -5.39417 0.202917 0
-5.79358 -0.199721 0.133799 0
-4.87611 1.6414 2.44076 0
-1.5381 4.77224 0.886035 0
-5.5045 0.97469 2.5073 0
-3.47674 0.25814 2.51085 0
-2.30656 6.93094 1.93469 0
1.08582 -5.88731 2.49502 0
-3.01182 -7.51415 1.08779 0
1.10587 9.30335 1.36425 0
-1.69061 -0.453333 2.51303 0
7.75763 -3.60847 1.68333 0
-1.57275 4.8334 1.42889 0
5.87968 -6.40881 1.52428 0
1.07861 9.30348 1.84925 0
-0.69407 7.70523 2.42151 0
8.99975 -5.69431 0.411139 0
0.78378 -3.22247 2.42872 0
2.29638 -1.88514 2.50688 0
-2.11608 9.08932 0.506892 0
0.463235 9.24769 2.47836 0
-2.39703 8.36391 0.421719 0
0.990487 6.44491 1.42721 0
-4.70149 8.44851 0.117262 0
0.953682 6.71919 2.07539 0
4.47285 7.64893 0.616104 0
0.882512 -7.54655 2.50961 0
2.93558 8.61122 2.50288 0
-0.675177 10.6355 2.51383 0
-3.48153 3.31903 0.75142 0
2.95152 9.30758 2.53485 0
0.856429 8.61786 0.992714 0
-5.22771 -0.368153 0.917834 0
-0.950862 -0.466626 1.55111 0
2.43918 6.97476 1.67668 0
-0.246715 0.75438 2.51715 0
-0.244032 5.20597 2.53597 0
-5.34594 -7.24273 2.26884 0
-0.889706 -0.791176 0.116765 0
-0.0406069 -1.61604 2.50448 0
-6.79604 -5.81813 2.42438 0
-2.27444 6.93333 1.055 0
1.35556 1.60139 1.37417 0
1.06473 4.76644 0.825685 0
2.06407 -3.60599 0.438623 0
-5.27693 8.35889 0.112758 0
5.47547 -3.79658 0.702484 0
-6.47427 -5.37368 0.309357 0
1.51584 0.493642 1.83955 0
2.49349 6.4839 2.5476 0
0.192208 10.2029 1.45032 0
-4.60414 6.67828 0.55069 0
-3.87345 0.224483 2.50655 0
-0.703804 4.96114 2.57582 0
-3.9429 2.77692 0.577811 0
8.2778 -5.48004 0.295336 0
2.68161 7.01983 0.733046 0
6.79666 -3.6673 1.19404 0
-3.92606 -4.99718 1.73451 0
1.61111 -5.22619 2.49418 0
-1.99167 -7.40019 1.5887 0
1.34796 1.23223 2.41871 0
5.63655 -3.74171 1.87269 0
7.35082 -5.62038 2.3394 0
1.65279 -0.577907 1.78233 0
1.62564 0.133917 2.43774 0
0.724836 -6.95049 0.308717 0
-4.49027 1.49485 2.51279 0
2.02646 -2.95633 1.07094 0
-6.175 1.86238 1.71005 0
4.22814 7.53066 2.55928 0
4.41383 7.34817 1.5265 0
1.85575 1.84675 2.54075 0
-5.63167 -1.35379 2.37197 0
-0.589764 8.83504 2.49921 0
-3.74855 -1.05988 1.72616 0
-5.91716 0.616081 2.4423 0
-5.76909 -0.520467 1.10591 0
-3.61594 -5.15637 2.47689 0
4.6153 -6.48918 0.369776 0
-4.99794 0.793151 0.559932 0
-4.12014 3.21366 1.11088 0
-5.50695 -0.565237 0.122929 0
2.04347 -0.76464 2.51779 0
-6.04919 1.23347 1.77621 0
-2.75721 4.18606 1.35433 0
-0.230387 -7.40608 2.48481 0
-4.52771 2.68408 0.652548 0
-1.40095 -4.79842 2.44884 0
1.1729 3.08677 1.02668 0
-1.14022 2.62624 2.475 0
2.8157 4.36134 1.4968 0
-5.64478 -5.21522 0.824783 0
1.33214 6.8 0.403896 0
5.49052 -5.58362 2.57069 0
2.39557 -2.95557 2.51239 0
-3.44514 -1.02986 1.25069 0
3.39525 -4.00525 1.54225 0
2.00073 -2.92257 1.81286 0
-3.24025 0.00775 2.51325 0
-3.21469 6.79406 1.99685 0
-4.06299 8.0311 2.55354 0
5.16936 -6.35024 0.115441 0
-1.93787 -0.947672 2.00944 0
0.387585 -6.95323 1.70697 0
-0.929808 -7.81865 2.49558 0
-2.60357 6.89777 1.73839 0
-0.333205 6.27705 2.53244 0
-0.318902 9.29085 2.54268 0
-7.43125 -6.99137 2.66637 0
-5.1104 8.47376 2.14356 0
-5.37089 -0.736644 0.768493 0
-1.33361 1.71334 0.730912 0
-7.0908 -7.58524 2.55885 0
1.12983 4.23183 0.385833 0
-5.56422 -0.207353 0.858333 0
-5.17636 3.01786 2.00085 0
-5.74967 -7.50509 0.638204 0
2.34252 -6.80359 1.92964 0
0.874464 6.68268 2.48875 0
-3.81994 -6.15377 2.443 0
-0.564375 -4.10313 1.07063 0
-2.51222 -7.41 2.32333 0
2.1875 -4.16198 0.453385 0
-1.8391 8.27019 2.50321 0
6.74428 -5.16476 2.36024 0
-3.64463 6.79228 0.884564 0
-5.95585 0.41578 2.08989 0
-0.969167 0.449167 2.44517 0
-3.80905 3.26924 0.111349 0
-1.75777 6.07216 1.12633 0
-4.06696 6.67018 1.66482 0
-5.95735 2.73618 1.60029 0
-4.54916 -1.29118 0.783614 0
3.66779 9.69195 1.45436 0
-5.62158 1.83527 2.51404 0
-2.099 9.471 0.866667 0
7.73758 -3.60212 2.1097 0
-2.14244 -7.40293 1.10571 0
6.71357 -3.59345 2.28155 0
8.17542 -5.94385 0.280168 0
8.32275 -3.53174 1.52444 0
2.60713 -4.64862 2.51237 0
-1.84965 6.97148 0.372887 0
-3.65546 8.59912 1.95827 0
-0.0940878 10.6667 2.50118 0
3.03609 -6.69238 1.51887 0
-0.750513 8.12487 2.42333 0
4.34467 8.10386 2.55938 0
7.23308 -3.6649 1.98611 0
2.67991 7.02868 0.170706 0
-2.38602 7.61673 2.55295 0
5.3449 -3.80062 0.258333 0
-1.4577 4.61797 0.207319 0
-1.20032 -7.57987 2.50487 0
-5.71166 -6.90414 2.30078 0
-6.12617 2.70583 0.957833 0
-5.2732 2.94797 0.96464 0
-1.18041 0.75207 2.15653 0
1.23669 2.26547 1.3054 0
1.6257 9.18591 2.50387 0
-3.3839 3.41667 1.0678 0
1.86047 -2.06667 2.41744 0
-5.19561 -0.988176 2.50068 0
-1.19537 1.50315 1.63796 0
0.311436 -0.271543 2.42101 0
0.963842 5.84153 0.900847 0
0.579471 -1.04817 2.4998 0
-2.11523 10.1667 2.4158 0
1.76966 9.40112 0.650281 0
0.966708 3.99715 2.36077 0
2.40516 -2.37619 2.51032 0
4.00214 5.26929 2.56286 0
-5.88807 0.667098 0.314511 0
2.45253 9.47342 0.663291 0
-4.43967 0.203306 1.4405 0
-0.408197 5.53962 2.51885 0
-2.84794 3.01706 0.382059 0
5.34324 7.96039 1.9587 0
-4.68931 -1.30229 1.57328 0
-0.167857 1.2308 2.53616 0
3.14479 -6.03299 2.43438 0
3.16853 -4.08004 1.05701 0
0.0539855 10.8783 0.807246 0
-0.32725 0.26125 2.50325 0
-2.02821 9.66592 2.4229 0
-0.306471 8.07235 2.51647 0
-2.28879 3.59327 2.46368 0
-1.38877 4.07606 0.150636 0
-4.68234 -0.476748 0.523951 0
-0.931562 -6.24906 2.49719 0
0.364551 9.30166 1.07764 0
-0.8075 -1.66806 0.731944 0
-1.49069 3.84044 1.57206 0
0.502186 4.49016 2.59918 0
-1.27979 -1.8476 0.579795 0
-3.63722 -0.525 2.46389 0
-2.05808 3.443 1.62683 0
4.21059 -3.89064 1.50369 0
4.44006 -4.41988 2.51398 0
-4.4625 0.246371 0.687097 0
-1.23773 3.53193 1.88455 0
-1.15031 1.27607 2.41411 0
2.83802 -4.10479 1.94431 0
-1.16442 0.880839 0.468796 0
-5.86775 -7.39142 2.19763 0
-3.33088 6.8299 2.39134 0
-3.10983 3.30498 0.283859 0
5.91432 -5.57521 2.51987 0
1.16709 3.20886 1.87152 0
2.1506 -4.15629 0.876647 0
0.430135 -6.95419 1.16554 0
-1.63704 0.610494 0.759259 0
-5.58425 -1.40387 1.25608 0
-6.20569 8.26625 1.40319 0
1.66689 -0.798514 0.190946 0
-6.5235 -5.58515 0.778759 0
-1.77228 2.96238 2.53564 0
0.385349 -6.78642 2.40013 0
2.03581 -3.78645 1.21 0
-2.58905 6.89649 1.35517 0
-5.22225 -6.02461 2.44058 0
-1.62267 -7.33411 1.28072 0
-1.75398 6.20373 0.496766 0
1.23214 2.68294 2.53611 0
7.69159 -6.15607 1.46028 0
-1.10048 0.42371 1.11371 0
-0.531421 -4.10355 2.06093 0
-0.403405 -7.12403 2.35652 0
5.39855 -7.03044 2.56667 0
-2.38164 6.04922 2.48711 0
0.979167 7.24306 2.58417 0
-5.30301 -0.379712 0.364529 0
-4.27332 -5.36113 2.50105 0
3.01644 -6.70205 1.98219 0
-1.92764 2.42117 0.756548 0
0.499653 2.17361 2.56146 0
-4.93258 -1.30864 2.29773 0
-3.79975 3.12786 0.9301 0
-3.4875 -0.755357 0.365357 0
1.35163 1.55633 0.941837 0
0.821169 3.81028 0.424395 0
-4.91517 6.6025 1.96483 0
-5.35959 0.220912 0.391038 0
-4.69304 -5.32158 2.46686 0
-6.06648 1.32278 2.11611 0
1.26537 6.79488 1.33587 0
1.94529 -2.33706 1.02618 0
-5.26153 0.211228 2.51123 0
4.19167 9.74574 0.861667 0
-1.62591 10.0474 2.51288 0
-1.83393 5.99056 2.53291 0
-0.6 -3.72283 1.63515 0
-5.39567 6.55577 2.48173 0
-2.67813 -7.50872 1.01234 0
-3.90655 -5.00896 2.27527 0
0.0934564 10.6237 0.459899 0
-3.43405 3.42106 0.458465 0
5.39037 -6.40188 1.41262 0
-1.35432 -0.65973 0.131622 0
-3.76486 4.09529 1.44239 0
-6.33105 -5.30556 1.44248 0
-1.23503 1.6 2.09733 0
-0.558442 3.6987 2.54383 0
0.895863 -1.27464 2.50414 0
-4.91478 3.02107 0.391509 0
-0.860433 -1.24823 1.50807 0
-4.71315 8.49944 0.970555 0
-1.99044 -6.28662 2.45809 0
1.26387 2.30903 2.3029 0
3.94332 -6.58378 1.50706 0
0.229947 10.0749 1.87166 0
-4.87955 3.07087 0.76219 0
-3.01591 -0.926515 1.5125 0
-3.28479 -0.866717 2.48931 0
-1.43188 3.90437 1.13214 0
3.8479 8.64412 2.56849 0
4.34076 -4.95761 2.46957 0
-6.37701 -7.27879 1.77701 0
1.55553 0.13726 1.63846 0
-2.89882 7.31118 2.43118 0
0.0193015 6.33254 2.56195 0
3.11141 -4.38121 2.49698 0
0.1978 -1.165 2.5006 0
-3.05625 8.12569 2.44958 0
-2.17455 10.1367 0.87545 0
-4.48825 -7.09488 2.34488 0
-5.2 3.02158 1.51473 0
-6.35635 -6.99019 2.03173 0
7.98008 -6.11626 2.52683 0
-5.06401 0.803503 2.5051 0
-1.84884 6.97107 1.36366 0
0.386055 9.21219 0.48304 0
-1.15793 0.630345 0.317586 0
-1.19303 0.713462 1.29784 0
-0.405531 9.78518 2.56305 0
-2.57585 2.02952 0.608898 0
8.13265 -6.24898 1.73776 0
-0.538636 1.60822 2.5792 0
-2.45036 8.38489 1.62158 0
-6.00672 8.29104 2.34179 0
1.32113 -7.53015 2.51057 0
2.05457 6.91022 1.40761 0
1.14925 4.94775 1.28375 0
-1.43153 -4.66648 0.15483 0
-5.02054 -6.41135 2.47105 0
-1.31138 4.54919 1.77846 0
-1.65706 1.3748 0.412702 0
0.191477 10.223 2.3304 0
-1.26817 0.757994 0.930959 0
0.832286 6.068 2.58171 0
1.24225 -4.32647 2.50027 0
-1.17007 -5.9034 2.48878 0
0.947479 6.66975 0.542017 0
0.540484 3.59887 2.55919 0
-4.74495 1.20798 0.842287 0
3.46453 4.4375 1.55372 0
-4.8199 2.70674 0.345559 0
1.93956 -2.32103 0.541912 0
-3.13806 0.521396 2.51284 0
-2.11601 8.79242 1.50253 0
1.64474 -0.501609 0.832082 0
-1.74239 9.385 2.51239 0
0.0989837 8.86524 2.56646 0
-4.58737 -5.11579 0.311053 0
-2.59511 -4.79474 0.393985 0
4.74241 -6.37517 2.47931 0
-5.17145 -1.21561 0.438452 0
-4.72826 -7.60217 1.88634 0
0.985417 6.25016 0.640545 0
-1.94252 3.80374 1.94276 0
-6.32453 -7.38292 0.834783 0
-0.609278 -0.112371 2.47938 0
-3.58279 2.21437 0.46498 0
0.117105 7.96842 2.55987 0
-0.568557 5.86289 2.49665 0
5.95 -3.76534 0.126687 0
-0.505189 -6.19324 2.49261 0
2.92277 -6.58887 2.38955 0
0.799699 -4.31627 2.50783 0
-5.73709 7.05225 2.51537 0
8.7683 -5.14595 0.404888 0
-3.007 4.1935 1.6095 0
-0.832317 -4.45854 0.360976 0
3.2089 7.09452 0.532192 0
-6.40238 -6.37449 2.03469 0
-2.12604 -0.958333 0.689062 0
-4.83837 -7.5873 0.39639 0
-0.41762 -5.3363 2.49714 0
-1.39868 -0.0768797 2.52312 0
-2.53585 -0.990257 0.967831 0
0.630711 -6.01726 2.49315 0
-4.8476 1.47089 0.642123 0
-1.82961 6.42803 2.48355 0
3.19283 7.0875 1.93586 0
0.991436 9.29669 2.31188 0
8.64208 -4.28835 0.398913 0
-6.2272 2.7 2.37047 0
7.00859 -3.87195 2.29943 0
1.86825 9.39621 1.76919 0
1.93869 -2.36058 1.65146 0
-5.54635 -1.18174 0.488128 0
-5.27332 -1.39748 1.84715 0
-3.38934 2.95618 0.256184 0
-0.999788 4.3536 2.57818 0
-0.583789 -1.09277 2.49551 0
2.42168 -6.79541 1.0663 0
0.340464 9.02706 2.0518 0
2.68058 6.99515 2.47767 0
-2.21044 8.43368 1.30779 0
-5.74643 2.83548 1.78595 0
4.39514 8.03148 2.05953 0
7.17855 -3.66532 1.44274 0
-3.01813 -4.90264 2.28257 0
1.15711 8.7416 0.569181 0
4.2 11.7714 0.164286 0
-5.6598 -0.959459 1.25811 0
2.65672 7.00709 2.00858 0
2.12191 -6.75044 2.4575 0
-0.629804 -2.9398 0.143725 0
3.30101 -4.06443 0.572819 0
-3.63076 8.54928 0.10072 0
-0.568148 -2.74815 2.45222 0
1.61332 4.82739 1.18847 0
-5.31529 2.44752 2.50579 0
-5.67094 0.283604 2.51218 0
-2.10057 -5.32543 2.48314 0
1.61679 -6.89635 0.593796 0
-0.169628 -1.21674 2.50269 0
-1.4378 3.67886 2.30589 0
-3.20012 -0.687861 1.26406 0
-5.31173 6.5977 0.642602 0
-2.58762 8.32597 0.916262 0
1.50485 0.579337 0.77449 0
1.4358 0.918897 1.98838 0
1.06631 3.06418 2.54645 0
-1.36772 -0.764437 1.94707 0
-3.62722 -7.55572 1.29147 0
-1.0375 6.82667 2.54667 0
3.84205 9.69705 1.94977 0
-3.34157 -6.10309 2.50028 0
-2.13571 9.84812 1.38008 0
-3.96922 -0.215485 2.50802 0
2.33073 9.50334 1.03105 0
-1.3614 8.5722 2.5306 0
-6.68079 -6.14834 2.3596 0
8.38517 -3.54619 1.04788 0
3.74724 7.19107 0.688149 0
-5.64426 -7.50382 1.78142 0
0.978469 4.64091 1.23947 0
-4.61239 8.50664 1.68584 0
-4.19828 3.25043 1.45216 0
1.86081 -1.70459 0.461351 0
0.997807 0.152632 2.52588 0
1.0783 5.17115 0.759066 0
-2.07928 8.61695 2.28682 0
1.25271 2.54776 0.510024 0
-2.14525 8.49235 1.91343 0
-6.01016 2.62533 0.588281 0
-2.36077 8.81157 1.87566 0
-1.83902 6.43388 1.60397 0
-1.23533 1.37293 0.641942 0
1.91489 -1.97748 1.46527 0
1.35156 1.54688 1.73719 0
-6.69849 -5.43393 2.33887 0
8.03814 -4.61624 0.268796 0
-3.53759 8.60657 1.56861 0
-2.81795 3.55641 2.41103 0
3.30221 9.57574 2.45711 0
-1.55919 3.27425 0.721235 0
-0.138194 1.78611 2.53889 0
-0.0427039 3.75472 2.54056 0
2.97188 9.59771 1.40021 0
-1.70675 -5.10951 2.48988 0
1.83247 -1.65357 2.48214 0
-0.539896 -4.11839 0.330311 0
-6.24423 2.76731 1.86269 0
3.6358 -6.14058 2.425 0
-1.19621 7.85864 2.53348 0
1.00022 3.78208 0.307743 0
3.80815 7.20091 0.281703 0
-4.34661 6.68304 1.97518 0
-3.76164 3.28034 0.507443 0
1.96085 -6.91158 0.214154 0
-0.620207 2.53731 2.53627 0
-6.10736 2.28247 0.897403 0
-2.00695 7.34172 2.53377 0
-0.80672 -1.69167 1.26263 0
-1.66109 -5.93641 2.43172 0
-5.59675 0.385788 0.777226 0
2.653 6.034 2.541 0
1.27598 4.82559 2.38701 0
-1.39955 2.6259 1.67231 0
-2.70852 -0.994231 0.580495 0
1.18417 9.28211 0.698853 0
0.566935 8.27231 2.57608 0
-2.06667 8.62442 0.441092 0
-1.59732 5.18601 1.67589 0
-1.55313 1.93125 2.5 0
-1.92703 3.41077 0.574187 0
-4.8041 -5.12724 0.682463 0
-4.36719 8.49901 2.22088 0
-1.24415 0.341297 2.43782 0
3.50619 9.67965 1.71637 0
-3.09498 8.70208 0.484436 0
-0.251344 7.46317 2.4922 0
1.0926 4.41046 1.41658 0
1.02171 5.54331 1.99754 0
6.52126 -4.84152 2.40033 0
-3.70354 6.82188 2.45354 0
-5.86997 2.75607 2.1034 0
-1.79932 3.40566 2.38733 0
7.33428 -6.18582 2.02294 0
-1.43618 4.1675 1.98145 0
-4.21282 -1.00769 2.49583 0
7.21822 -5.09068 2.31398 0
-2.59298 -6.82193 2.46813 0
4.03158 -6.56541 1.98346 0
-3.95325 8.59106 1.61463 0
4.23221 9.76715 0.40016 0
0.736747 -0.237349 2.48614 0
-3.45436 -7.55805 1.78624 0
1.44327 0.953739 1.55801 0
4.43437 8.03576 0.985417 0
2.30748 -3.76259 2.49762 0
5.86156 -6.40612 0.868707 0
2.56885 7.44672 2.54262 0
-2.38483 8.78117 2.3375 0
1.21053 3.01421 1.49789 0
4.70612 -3.92357 0.149609 0
-0.706985 5.43542 2.5462 0
-1.53592 5.32913 2.52864 0
-5.21527 6.61662 0.236622 0
1.76638 6.77894 2.45259 0
-1.09643 0.30854 0.360093 0
-0.695571 -2.87957 1.67643 0
2.80191 -4.99397 2.50338 0
-4.26878 -6.01929 2.46751 0
-0.127023 -5.91604 2.50043 0
4.3035 8.48599 1.97229 0
7.94694 -3.59898 0.829252 0
-2.55311 8.80041 1.26554 0
-1.69424 3.4838 1.90033 0
0.216535 9.99055 1.03583 0
1.0854 5.18686 2.56934 0
-5.08255 -7.48824 2.05879 0
-2.20171 10.3226 1.55727 0
1.73245 9.39536 2.26325 0
7.31006 -3.66925 2.4296 0
3.2858 -5.4562 2.4994 0
-1.42886 4.03856 0.660448 0
-4.67331 8.50215 0.57546 0
-5.05148 3.03444 1.16407 0
-5.26158 0.132012 0.795427 0
3.88424 -5.36727 2.51424 0
-5.0019 -0.762931 0.662241 0
-2.51521 8.39104 2.11063 0
1.07368 5.40036 0.161178 0
-5.09827 -0.596698 2.5077 0
-3.33878 -5.5813 2.48878 0
4.42596 -3.89602 0.514423 0
-2.71833 -0.969242 1.88894 0
0.892196 9.20867 1.06561 0
-3.46382 -6.55987 2.49092 0
7.10576 -6.19988 0.442034 0
2.07571 -3.40089 0.999468 0
0.971739 6.05186 1.26646 0
0.966729 6.6953 1.67838 0
0.930862 6.65017 1.04741 0
1.58842 0.96 2.51105 0
4.03017 7.21121 1.93534 0
-4.53373 6.88708 2.45287 0
1.10996 3.42541 0.395325 0
4.50186 -6.5125 1.48963 0
-4.09196 6.72196 0.475 0
-5.99108 1.21433 0.503822 0
4.97465 -6.81493 2.55312 0
5.24561 -6.37083 2.43662 0
3.95215 -6.58301 1.05527 0
-1.05694 0.897685 2.47238 0
0.950992 4.87639 0.472818 0
0.162326 -6.32023 2.4786 0
6.45127 -3.67102 2.09777 0
-2.48926 -4.80101 1.50034 0
2.01198 -2.7124 0.684298 0
-0.363616 -0.834598 2.50201 0
0.544062 -4.6075 2.51219 0
-5.20394 3.00394 0.641267 0
5.42115 -6.39727 1.90334 0
2.55825 -3.43707 2.50456 0
-1.58361 3.0123 0.877322 0
2.37877 -6.79984 1.49701 0
-4.43898 0.274153 1.0822 0
1.35576 6.79485 1.85061 0
1.78064 -1.22124 0.539662 0
-5.41769 -5.19752 0.505117 0
-1.90532 6.45931 1.23112 0
-4.29192 1.05404 2.5298 0
-0.737292 -0.533958 2.48771 0
-4.11837 7.10693 2.54729 0
-1.63101 -6.42868 2.41395 0
-0.847135 -1.29297 2.04193 0
-0.927485 -0.897661 1.98567 0
0.3368 -5.014 2.4948 0
-3.10182 -0.899834 0.573344 0
6.80823 -3.70396 0.615854 0
7.49005 -3.65457 0.98414 0
-6.10024 1.53726 1.62043 0
-0.0207198 -7.05418 1.41313 0
1.0931 3.5125 1.62414 0
-2.46935 -4.79846 1.11969 0
-3.86892 -4.98986 0.59696 0
-2.25464 2.16321 0.872262 0
1.19823 -3.4659 2.49851 0
-6.56786 -5.68616 2.15982 0
4.30644 8.525 0.575379 0
-6.40094 -7.08531 1.32594 0
-2.51554 6.95385 0.10736 0
-2.22139 10.443 0.525515 0
3.67925 -3.98844 1.9398 0
2.9959 9.56191 0.715039 0
-3.50398 6.80426 0.301989 0
1.49709 0.613757 0.27672 0
4.20179 9.34777 0.551339 0
-0.348478 -0.46587 2.495 0
-3.15146 3.54065 1.9643 0
-6.16009 1.79079 1.2636 0
0.635096 -0.578365 2.50625 0
-5.83644 -0.108275 1.29208 0
-1.35468 -0.711988 0.947661 0
-0.887234 -4.54202 1.4133 0
2.01681 -3.22284 2.0056 0
2.95979 9.59604 1.05354 0
1.78252 -1.30524 1.0472 0
0.0920168 0.0369748 2.42437 0
-2.14617 -7.40128 2.00785 0
-3.35137 6.8123 0.713086 0
1.40095 -4.82106 2.50666 0
-6.09912 1.45324 1.22088 0
-6.45413 -6.0063 0.943261 0
-0.682692 -2.64252 2.16432 0
-1.27932 10.6045 2.50902 0
4.64098 9.80861 1.34385 0
-0.949745 -0.457398 1.03954 0
-5.1617 -1.39794 1.3617 0
-2.41746 3.35042 1.26299 0
1.63406 -0.388645 0.449332 0
-5.11372 -7.50013 1.32218 0
6.24424 -4.26849 2.46636 0
-1.36586 -7.29724 0.753448 0
7.46523 -6.15583 2.36034 0
-0.724053 -2.00019 0.410795 0
-1.87721 8.87368 2.48662 0
0.00181818 -7.04485 0.509697 0
2.5593 -6.85581 2.52519 0
4.68534 -3.85654 1.4767 0
-3.97235 -1.12334 0.524338 0
-1.21143 -0.428201 2.47454 0
0.54537 -7.18452 2.50701 0
3.26108 9.22552 0.735825 0
-0.894483 -7.12517 2.41414 0
1.81086 -1.55293 1.44397 0
0.962258 6.24774 1.95452 0
1.74222 2.45825 2.56439 0
3.33225 8.48009 2.43071 0
-5.62539 8.39476 1.92094 0
8.6216 -6.02209 1.77257 0
1.08033 -2.14429 2.50825 0
-4.96456 6.59779 1.5625 0
6.46272 -6.29401 1.2943 0
-1.83097 7.78236 2.51153 0
1.17516 3.1085 0.557843 0
-0.432143 7.07262 2.4875 0
-4.35437 -7.58594 0.633125 0
-1.76905 -4.7003 1.55 0
3.67872 7.16081 1.15946 0
-1.17773 -7.25 2.01218 0
-0.726061 7.32606 2.4503 0
-0.542054 4.44632 2.55756 0
4.66593 -6.49148 1.16185 0
0.374735 9.37606 1.88955 0
6.88403 -3.6579 1.95339 0
-1.62179 -2.85821 2.37607 0
-4.85086 -0.0846552 2.50466 0
4.31786 8.45668 1.01351 0
-1.29806 2.18062 1.87481 0
1.48241 -0.611296 2.49315 0
-1.74031 -0.913351 1.61047 0
-0.525452 -4.17696 1.4863 0
-3.97531 -5.00494 1.15093 0
-2.54278 3.46463 2.25241 0
-5.22296 -5.29748 2.43425 0
8.73981 -5.98426 0.486481 0
4.59568 9.81295 0.142806 0
1.06376 4.44305 0.773521 0
7.95578 -3.66185 0.369075 0
0.0833333 10.7758 1.38452 0
7.36176 -3.73562 0.204575 0
1.00912 4.62162 2.32027 0
-3.00343 6.81275 1.61912 0
0.0397959 9.38877 2.56429 0
-5.46393 1.46607 0.784643 0
0.0896694 10.6731 1.75496 0
-1.64078 -7.69441 2.49916 0
-5.77528 0.0025 0.586944 0
-1.09329 10.2791 2.5189 0
0.199875 4.91462 2.59812 0
6.30447 -6.32597 2.50302 0
-5.65132 -7.49868 1.22731 0
-2.22079 10.4423 1.14229 0
4.18779 9.72306 1.95291 0
-1.32703 1.19167 1.27988 0
-2.39085 -0.960784 2.30948 0
3.94043 9.70059 1.24941 0
2.125 4.20698 1.33131 0
2.06042 -3.70833 1.61701 0
5.3456 -5.9264 2.4508 0
-1.11332 0.442965 0.765578 0
-0.730758 -6.58385 2.47037 0
1.74589 -7.43406 2.4599 0
-3.31082 8.49253 2.52088 0
1.925 -2.83544 2.48034 0
8.01352 -6.34937 2.1827 0
-5.60143 2.34406 0.71209 0
4.64141 9.81279 0.969656 0
-2.43058 -7.46853 1.55826 0
-1.67157 5.5634 1.66569 0
-1.65469 -0.81625 0.331875 0
-4.18706 7.52127 2.55154 0
4.0725 -6.563 0.3835 0
3.43937 8.01511 2.44608 0
0.810331 9.1686 0.111157 0
-6.47872 -6.68616 1.73285 0
-4.2266 -1.1984 1.44744 0
1.35285 1.38259 2.06266 0
-6.20818 8.25633 0.48287 0
-1.03796 9.87117 2.50876 0
1.7191 -0.940839 1.17997 0
-0.804333 -1.36267 0.527 0
-3.27058 -0.664787 0.746189 0
0.229808 -2.40838 2.49629 0
-0.56185 -4.40896 2.42225 0
-6.22558 2.54729 1.98101 0
-2.11829 8.48079 0.866768 0
1.44864 -1.76027 2.51221 0
5.32859 -6.40417 0.963362 0
-1.42088 4.4598 1.18622 0
-1.54898 -6.89898 2.32449 0
2.35736 -6.22183 2.4434 0
-4.53429 -5.14948 1.16675 0
-1.3844 4.04413 2.40621 0
-5.99153 1.16798 1.06632 0
-0.678302 -5.7717 2.49882 0
-0.168542 10.0606 2.55479 0
5.12164 9.63955 1.88881 0
3.68038 9.68683 2.27608 0
-1.26111 -7.28205 1.24274 0
1.35812 1.58056 0.470299 0
4.27167 8.86024 2.09262 0
-6.22861 2.23464 1.78524 0
-0.913077 -0.853846 2.40346 0
-0.351278 3.28537 2.58537 0
-5.73327 2.84838 0.854856 0
-3.94712 1.31538 2.52115 0
1.6655 7.67485 2.47661 0
-5.8558 0.813244 0.690327 0
4.26165 9.76843 1.36208 0
0.174427 8.47634 2.57901 0
0.014557 7.04937 2.52595 0
-0.149398 -4.81265 2.48765 0
5.11364 9.7358 2.21818 0
-1.08219 -4.55245 1.99363 0
1.05156 4.49957 0.118608 0
4.60275 -5.21975 2.42225 0
2.95113 -6.875 2.4795 0
-1.03605 0.339674 1.61033 0
-3.85107 -1.10383 1.35138 0
5.71671 -5.14199 2.59256 0
2.06619 -3.14638 0.702044 0
-1.41854 2.78 0.399024 0
-0.0151982 -7.06652 1.95396 0
2.50341 7.86932 2.53523 0
-2.82268 6.88518 0.494821 0
-5.06175 -5.15271 1.07801 0
-6.13027 -7.46767 0.152996 0
5.22539 -3.79764 1.20785 0
0.416463 -3.55183 2.5011 0
0.665833 4.75375 1.80583 0
1.51505 4.82117 1.52602 0
-3.61698 3.35802 1.67444 0
-5.85093 0.21028 1.34299 0
-5.26573 2.98933 0.25927 0
-0.21875 -0.144837 2.48071 0
-2.99974 -6.52725 2.49048 0
-0.932036 -0.876647 1.04731 0
2.87707 -4.09945 0.33895 0
2.78058 9.09058 0.708269 0
-5.23171 6.58018 1.06738 0
-2.00816 2.99676 0.116192 0
4.04492 -4.04794 2.48887 0
2.32163 4.17885 1.65817 0
1.29797 0.439865 2.51599 0
-1.20875 1.64292 0.297917 0
-2.1226 9.2206 1.541 0
2.31333 8.81714 2.53571 0
-5.64823 -0.908832 2.44878 0
-4.67457 -0.487861 2.48671 0
2.0255 -3.75331 0.736755 0
-6.25514 2.76542 1.3715 0
-1.62467 5.48059 0.942763 0
2.44843 9.49591 1.96101 0
-1.59659 -0.813636 0.653125 0
2.44811 9.48774 0.275472 0
0.471226 1.35802 2.52594 0
-6.16374 -5.52996 2.67691 0
2.43714 4.88 2.52714 0
2.79793 -4.09763 1.47722 0
-6.53174 -5.51696 1.20696 0
-0.319375 -7.10521 0.302708 0
0.980349 -6.96681 2.45677 0
-5.74515 -0.535758 1.57758 0
4.00792 -6.58076 2.47356 0
-3.31208 1.09833 2.51042 0
4.30146 7.28896 0.410505 0
6.55173 -4.44109 2.3745 0
1.55137 0.217289 0.479975 0
-4.05496 3.24618 1.79313 0
4.57956 -3.95397 2.47221 0
-5.85571 -6.47145 2.48617 0
3.3238 7.10524 1.52051 0
2.06631 -3.16905 0.346494 0
-1.06732 0.0891071 2.08375 0
0.984924 3.7479 0.71584 0
3.77651 -3.97581 1.31884 0
1.99069 -6.94069 0.740328 0
-0.128161 6.64023 2.51322 0
0.553995 4.046 2.56313 0
-4.33217 -7.5465 1.16178 0
1.2187 6.79853 0.798529 0
6.24209 -3.6904 1.06977 0
1.24228 2.38357 1.78076 0
-1.24203 3.56213 1.42316 0
-2.04431 3.80935 0.353252 0
0.626151 8.83536 1.08635 0
0.635989 3.89615 2.05742 0
1.0246 -0.460317 2.5254 0
-5.58384 0.106681 1.07004 0
1.90462 -2.08232 1.99666 0
2.62755 9.48481 2.39772 0
-1.2283 3.56595 0.501868 0
-4.9277 6.67859 2.44656 0
1.15649 -1.5711 2.51104 0
-5.71776 -1.02196 1.89206 0
0.397466 0.208277 2.47483 0
-6.17238 2.23976 0.250714 0
-4.30938 -5.08646 0.281771 0
0.941992 -0.844727 2.51543 0
0.788265 3.9233 0.913776 0
3.2736 7.10253 1.01208 0
-1.51497 -5.56803 2.48163 0
0.979858 5.77299 0.465877 0
-1.09256 0.859091 1.67934 0
-2.55871 -6.40114 2.50076 0
-0.482887 -3.96533 2.42842 0
3.66321 -4.47783 2.51934 0
-4.79234 8.37661 2.50403 0
3.63133 9.68472 0.932253 0
8.63519 -6.03241 1.19398 0
-2.16572 -6.74072 2.46534 0
1.24208 -5.48738 2.45866 0
2.60096 -5.50635 2.49635 0
0.590871 5.17823 2.60098 0
-4.6105 3.15683 0.223833 0
-0.609542 -3.3645 1.28282 0
0.36412 6.70718 2.52569 0
-3.22237 -1.05329 1.96612 0
-2.45983 -0.927069 0.385345 0
1.3561 6.92012 2.53537 0
-1.22083 -0.739651 2.45524 0
-4.8535 -1.26815 0.63758 0
-1.42248 9.63129 2.51179 0
0.420808 -4.01482 2.50614 0
2.32097 -4.2086 1.99247 0
-1.74903 6.34774 0.852581 0
-2.32088 3.2012 0.42141 0
-3.15513 4.13504 1.34145 0
-4.165 -1.15594 0.915312 0
-5.5084 8.39764 0.75217 0
3.31122 -4.0449 2.0352 0
1.95865 6.91223 0.935852 0
-3.59943 -0.136069 2.50706 0
-1.89125 3.57875 0.23875 0
-2.89709 6.89128 2.45058 0
0.620968 0.00806452 2.46452 0
-1.60089 5.08661 0.481548 0
6.53484 -6.07234 2.37109 0
-3.25375 2.87681 0.625139 0
-4.97435 1.16039 0.421104 0
-1.56015 4.81472 2.02411 0
-4.61569 0.762745 2.50163 0
1.46818 3.37727 2.57013 0
8.1742 -5.02869 0.286699 0
-2.09841 9.42261 1.84586 0
-4.65362 -1.29855 1.1558 0
-0.74434 -2.40377 1.36226 0
-6.04899 1.50169 0.97196 0
1.44905 -6.89968 1.00633 0
-0.225355 2.77535 2.52713 0
-5.76025 -0.6445 2.00325 0
3.87656 7.95729 2.55938 0
1.33628 5.60088 2.57655 0
-5.83299 0.322238 0.501308 0
-5.77201 -0.0845109 2.47038 0
-1.73565 -7.36667 0.84213 0
-1.91634 1.00248 0.450495 0
0.703472 8.82708 2.5875 0
-1.41176 2.55392 2.06993 0
1.87961 -0.339894 2.50585 0
2.09055 -4.10748 1.64016 0
-3.58276 7.27701 2.51523 0
-2.03972 2.88194 0.8175 0
-0.606209 -3.65065 1.10915 0
-1.15676 1.73986 2.46013 0
4.88679 -4.67969 2.51378 0
-2.15378 -0.968649 1.1727 0
-3.28161 4.18506 1.63161 0
1.39909 -2.99102 2.49622 0
0.908534 -5.18834 2.51166 0
1.49036 -6.90321 1.56047 0
-1.0198 3.72215 2.54161 0
2.04048 -3.03175 1.47857 0
-4.24157 -0.518714 2.47014 0
1.44453 1.00859 0.644531 0
1.36821 8.61957 2.4431 0
-1.20149 -4.56381 1.58806 0
0.227469 9.97685 0.435494 0
-4.71384 7.32768 2.42545 0
-0.713483 -2.11236 1.75169 0
-1.98673 -3.30895 0.790432 0
-2.2 10.2537 1.95459 0
-1.96268 0.744366 0.685915 0
-5.65833 0.463021 1.10104 0
3.94764 7.19837 1.46322 0
0.89227 3.79622 1.53865 0
8.1997 -6.09251 0.735928 0
1.40902 -6.58339 2.39288 0
1.38344 -2.54188 2.50682 0
-2.05504 -7.36511 2.41079 0
5.52439 -3.77101 2.48328 0
1.13856 -6.8902 0.614706 0
-2.43182 -7.46629 0.590909 0
-1.41194 2.8493 2.42486 0
-0.579872 -3.54423 2.37115 0
1.09182 4.96792 1.94182 0
6.02671 -3.70963 1.61134 0
-1.46079 -7.30188 1.75257 0
-1.03153 -4.60653 2.40741 0
-0.81 -1.60105 1.64263 0
-0.625245 1.02525 2.53015 0
-2.19324 6.93971 1.49559 0
-6.01525 1.54387 2.4684 0
-0.810664 -1.59423 2.41206 0
-6.14419 1.88398 2.09525 0
-5.63235 -1.26765 1.61647 0
-6.2763 -7.50599 1.42109 0
3.84567 9.70669 0.542126 0
1.50021 6.83098 0.927992 0
-1.42673 3.56749 0.905925 0
0.0859524 0.380714 2.505 0
-1.91849 3.74452 1.07487 0
-6.59656 -7.18243 2.4038 0
-3.34773 -1.02417 1.59401 0
-3.97628 6.69077 1.28366 0
4.45851 -5.62526 2.48259 0
2.14521 -7.38351 2.50691 0
-4.64058 3.15519 2.20327 0
0.961551 3.79098 1.19383 0
-3.17556 3.33561 2.45405 0
-0.800266 -1.61144 1.97473 0
-3.19382 -0.976006 0.956178 0
-3.87603 -1.09452 2.44007 0
-0.562149 -4.25421 0.684579 0
-5.04756 -5.62603 2.44654 0
-0.157143 -2.10934 2.50137 0
8.11557 -3.53115 2.50574 0
8.50216 -3.91978 0.396043 0
-4.99659 8.4875 1.69841 0
1.79842 6.91461 0.206162 0
-4.20953 3.2214 0.375212 0
-1.62569 5.31105 1.25221 0
-5.69308 -0.897695 0.154787 0
7.81336 -6.08129 0.334748 0
-5.64456 2.81779 0.545147 0
4.19601 9.34548 1.00293 0
0.233065 7.45618 2.57285 0
2.7467 -4.1026 0.858854 0
-6.42682 -6.35858 1.06624 0
-0.328356 -3.08473 2.49346 0
-1.69357 -7.27929 2.24536 0
-2.23224 3.66589 0.542056 0
-0.741729 -2.39962 0.93609 0
-5.13053 1.28774 0.666106 0
-4.60171 -7.59612 1.50326 0
-6.79859 -6.69577 2.41761 0
1.61692 -1.25644 2.47949 0
-4.00368 -5.58405 2.50337 0
-0.572941 4.07765 2.58059 0
-4.74831 8.49718 2.06071 0
-4.68129 -0.895614 2.50965 0
-1.34599 -0.717924 1.4467 0
1.49637 -2.12339 2.51008 0
4.58945 9.80505 2.06055 0
0.551111 -2.72 2.41583 0
-5.61911 0.751964 0.976964 0
1.11496 3.30915 2.20871 0
-1.66482 2.46663 0.213407 0
-0.919565 3.70031 2.10124 0
-5.35273 0.632121 0.571212 0
-5.93016 0.811508 1.12103 0
-3.783 3.3906 2.0554 0
-2.7433 6.88144 2.10876 0
0.0129781 10.7706 0.104781 0
-5.85652 -0.0481367 1.73168 0
-1.20566 1.52135 1.14617 0
-2.30075 6.55448 2.53843 0
7.46551 -4.21478 0.106752 0
-1.875 6.95068 2.47554 0
7.08911 -6.20304 1.78411 0
-4.44385 6.64769 1.52615 0
-1.31821 2.20353 1.15625 0
2.45761 6.91413 2.54674 0
2.90385 6.04808 1.11923 0
1.02041 4.27041 1.99932 0
-1.06113 6.27302 2.5721 0
-5.57646 8.37354 2.43231 0
-2.38513 0.940733 0.66444 0
-2.20088 3.20885 0.766814 0
-5.71056 1.25915 0.840845 0
-6.53427 -5.44755 1.78357 0
-1.38473 9.08119 2.52058 0
1.04037 -6.88807 1.26147 0
-3.12378 -5.22541 2.49541 0
2.04302 -3.63527 1.98333 0
1.7157 -1.01657 2.06948 0
0.293325 9.71323 2.29697 0
1.61083 -0.287032 1.54265 0
0.862652 -6.93003 1.05869 0
0.857558 -6.41686 2.45756 0
-3.49753 4.11605 1.4037 0
5.89571 -3.74718 0.709436 0
-0.617742 -4.82903 2.48548 0
-4.88286 2.44786 0.399286 0
-3.97907 -6.97515 2.45557 0
5.12781 -5.47219 0.000280899 1
0.991575 1.04296 0.00262431 1
-0.611829 -1.86963 0.0223171 1
1.32624 -3.67199 -0.0148936 1
-0.938214 1.92536 0.00428572 1
4.27085 8.18554 0.0281991 1
-2.48873 -0.897977 0.0459538 1
-5.42677 1.2476 0.0501042 1
-4.21453 1.19151 -0.00104651 1
-0.776351 6.98514 -1.63611e-10 1
-6.08231 8.20336 0.0665205 1
7.6018 -4.83144 0.0973054 1
0.376684 3.52124 -0.0134715 1
-5.05531 7.07344 -0.000647668 1
2.74069 -5.91968 -0.000797873 1
5.23111 -4.08721 0.0322519 1
-1.39677 0.636828 0.0819893 1
-3.41184 -0.280848 0.000146199 1
-3.89913 -5.05612 0.0865385 1
7.4914 -6.01372 0.0493023 1
0.24849 5.57332 0.00218121 1
0.55625 -5.3475 0 1
-4.34334 7.89384 -0.000125629 1
-5.61062 2.79288 0.0689516 1
0.755719 7.08873 -0.000490195 1
-4.94566 -5.89416 -0.0001497 1
-2.46697 8.19408 0.0179719 1
-0.841104 9.72669 -0.000613496 1
5.79948 -4.96804 0.0072165 1
-1.26189 3.5859 0.0995595 1
-5.03443 2.96357 0.0235714 1
0.636979 3.08802 0.00295139 1
-1.89756 -2.70549 -0.00304878 1
0.700613 -0.905025 -0.00379902 1
-2.68969 2.4577 0.0207346 1
1.49022 -6.62572 -0.00144928 1
-3.38758 1.65537 0.00199387 1
-4.36645 7.34675 0.00519481 1
4.53284 -4.26986 0.012027 1
0.81775 -1.39175 -0.004 1
3.93732 7.38353 0.00770142 1
2.83443 8.50729 -0.000142858 1
1.50915 -3.30793 -0.0146341 1
-0.0609297 -6.94661 0.0325377 1
1.67387 8.17677 -0.0145161 1
-1.84942 0.681686 0.0130814 1
-2.09125 10.4716 0.0373214 1
-4.91042 -0.139881 -0.0107143 1
0.187736 0.13239 0.00943396 1
4.17251 9.39406 0.0719613 1
-0.0171362 2.31291 0.00633803 1
-1.76195 1.60751 0.0471675 1
-1.52805 8.40902 -0.0104878 1
6.00107 -4.45506 0.000766871 1
2.80075 7.88925 -0.00075 1
-0.131944 8.21806 0.00104167 1
-0.179762 -2.68214 -0.00965609 1
1.50612 -5.2236 0.00122378 1
6.24622 -5.02286 -0.009375 1
-0.994118 -5.83987 -0.00294118 1
-2.56957 1.96369 -0.000339366 1
-0.0368644 1.71059 -0.00169491 1
-2.77332 -5.3398 -0.000139666 1
2.9944 -6.64325 0.0797414 1
2.356 -4.31026 0.0480691 1
-5.85838 -5.78832 -0.0170659 1
5.15543 -5.91413 0 1
1.09161 -0.271607 -0.00196429 1
-3.92679 0.690919 -0.00280269 1
-0.828212 -6.41425 -0.0170391 1
-4.43929 2.26753 -0.000974026 1
7.14804 -4.93856 0.054902 1
3.22938 -4.825 0 1
-0.350989 -4.0959 -0.00466102 1
2.08925 -4.84158 -0.000129534 1
3.42153 7.76238 -0.000742575 1
-2.6959 -7.2153 -4.44811e-10 1
7.43642 -4.56327 0.0990741 1
0.19093 4.99163 -0.00581395 1
-3.13081 -6.08779 6.93077e-10 1
-3.46179 7.96412 -0.000129535 1
-6.32684 -6.67532 0.088961 1
0.435924 -4.96029 -0.0153361 1
-0.647256 7.79421 -0.00365854 1
-2.67835 7.36469 -0.000257732 1
1.36652 7.91161 -0.003125 1
2.30507 -6.31051 0 1
-1.09355 6.10079 -0.000157232 1
-0.534291 -3.54808 0.0969349 1
-5.3295 -6.81918 0.000396826 1
1.43456 -6.00662 0 1
0.990882 -5.89971 0 1
0.610877 -3.25308 -0.00698052 1
-0.611364 6.29886 0 1
0.745673 6.16939 0.0290064 1
-3.11086 2.10932 0.00471491 1
4.99795 -4.55848 0.0181287 1
1.34121 -1.05577 -0.00357143 1
-5.80787 6.96644 -0.00290055 1
-0.0241979 -5.68971 -0.00040107 1
2.81524 9.37727 0.0339572 1
-1.05585 4.84512 -0.000731707 1
-5.35814 -5.72814 -0.00671429 1
3.4681 -4.09175 0.0774631 1
3.89333 9.12306 0.000555555 1
-2.5559 -0.562921 0.011236 1
-3.01058 2.83298 0.0329755 1
-0.38074 5.03482 -0.0059949 1
-4.66483 1.09619 0.000141242 1
0.955814 6.5532 0.0828488 1
4.38724 -6.51611 0.0393041 1
1.99853 7.37108 -0.000163398 1
-1.78735 -0.753395 0.033642 1
-0.93871 10.7835 9.61365e-10 1
-4.83715 1.58461 -0.00451389 1
-1.04411 -4.64555 0.0127874 1
-5.04831 -0.555982 0.00996933 1
-4.34868 -7.08487 0.0266447 1
-3.54865 7.15524 0.00553892 1
3.03222 7.39861 0.0025 1
-0.311986 10.3668 0.00376712 1
2.84149 -4.38287 0.00269396 1
-0.521026 5.5005 0.00347682 1
4.93864 -6.82409 -0.00136364 1
3.71383 8.24099 -0.0034264 1
0.929491 4.00524 0.0483533 1
-1.25139 -5.08264 -0.0107639 1
-0.709797 -1.35327 0.0595721 1
2.69387 -6.37103 -0.00182119 1
-2.61578 -5.99539 1.15737e-09 1
1.29242 -1.51798 -0.00758427 1
-5.22527 2.48944 0.00173797 1
0.458775 3.94255 0.00413907 1
-5.31243 0.377459 0.0353825 1
-2.84722 7.84444 0 1
-0.526026 9.23167 0.00192308 1
3.44389 -5.48833 0 1
5.58329 -5.40787 0.00814917 1
1.03466 6.18971 0.0943277 1
-2.6038 -0.12055 -0.00327225 1
-2.34717 2.83437 0.0227679 1
0.989655 -4.95948 -0.00287356 1
-0.502007 8.75493 0.00857664 1
-0.0445804 6.9729 -0.000524475 1
2.55656 7.35813 -0.000625 1
-1.74079 9.63853 -0.00169173 1
-3.94713 -0.230849 -0.00722477 1
-1.56176 -6.06373 -0.0176471 1
3.56157 -6.581 0.005 1
-3.89627 8.17251 -0.000690607 1
-0.433276 0.473276 0.00603448 1
-1.5412 7.50694 0 1
6.69767 -4.10116 0.00465116 1
-1.03992 -0.329412 0.0636555 1
-5.94023 1.68477 0.0617816 1
4.22291 -6.00406 -0.00065445 1
4.55223 -5.24516 0.000916232 1
1.03908 -6.78362 0.0471264 1
0.146333 6.58367 3.97364e-10 1
-1.73964 10.2786 0.000357143 1
-0.895031 3.75466 0.0223602 1
-3.13517 -6.99273 0.00406977 1
-5.61631 -7.3144 0.0689286 1
0.0279412 -0.788399 -0.00833333 1
-2.23658 0.90899 0.0616995 1
0.08875 -6.09938 0 1
0.878873 3.57911 0.0213615 1
0.640497 2.61652 0.00277778 1
-3.76045 -6.50223 0.0217466 1
-3.84282 2.89741 0.0626437 1
-4.42058 -5.88656 0.00561225 1
-0.222222 5.88611 -8.27842e-10 1
0.56 6.59031 -0.000625 1
0.855585 2.1117 0.00452128 1
1.20147 -6.34338 0 1
3.18432 -6.27751 -0.00207101 1
1.0931 -0.718558 -0.00444785 1
-3.2505 7.50985 0.00126263 1
3.23735 -5.835 -3.50616e-10 1
1.25497 0.591304 0.0136646 1
6.81281 -6.14196 0.0457286 1
-3.72772 2.42228 0.096114 1
0.353177 -2.47362 -0.00290055 1
0.310677 -1.175 -0.0078125 1
0.657093 4.79081 0.0494186 1
-2.1243 -3.0412 0.00105634 1
-2.05318 9.91624 0.0343949 1
-0.774708 0.940205 -0.0141813 1
-0.662908 -2.43519 0.0762228 1
-0.45371 4.53016 0.0104839 1
-2.095 7.32608 -0.000675676 1
-1.29255 0.225776 0.0149068 1
-2.84549 8.62072 0.0600694 1
-1.65621 10.7079 0.00285235 1
6.51957 -5.65872 -0.028876 1
-5.23454 7.87327 -0.0105491 1
0.0030303 -4.63485 -0.0284091 1
0.452962 -6.87903 0.0427725 1
-3.8714 7.60541 0.000450451 1
0.191981 -6.53915 -0.000786164 1
1.48589 -0.454704 0.0342742 1
-3.69581 0.19532 -0.00566503 1
0.764764 -2.79941 0.00413386 1
3.01875 -5.09 0 1
-4.72597 -0.877901 -0.0124309 1
-2.00589 8.44246 0.022624 1
-0.413021 -6.10469 -0.00651042 1
4.64949 -5.6898 -6.08211e-10 1
-0.568944 8.25901 -0.00900621 1
1.90529 8.51357 0.00128572 1
1.61755 -3.96436 -0.00868794 1
0.108194 4.36958 0.00847222 1
-1.27354 3.14879 0.0497573 1
3.36548 -4.41696 -0.000595238 1
-2.79672 0.364899 -1.20413e-09 1
1.27247 1.62067 0.0556859 1
2.20525 7.03272 0.0432099 1
-4.08491 -1.08817 0.0618343 1
6.41417 -3.74883 0.0708333 1
-4.17217 0.195387 -0.00520833 1
-0.294215 10.8545 0.00165289 1
-2.7563 1.47674 1.5549e-09 1
-3.59653 2.05866 0.0425743 1
-1.37397 6.43082 -0.00136986 1
-3.32168 2.61449 0.0341755 1
-4.41282 6.82015 0.0804957 1
-4.95636 -7.14046 0.0231214 1
0.0513423 0.708725 0.00402684 1
-2.56626 -4.92836 0.0305108 1
-0.868902 7.43415 -1.45377e-09 1
1.09902 3.1625 0.0669944 1
3.96906 7.85313 -0.006875 1
-2.72233 3.38683 -0.00019084 1
-0.511547 3.22002 0.00158898 1
-1.95207 -0.228107 -0.000591715 1
1.72859 -1.74672 0.0304688 1
0.309873 7.93535 -0.0044586 1
3.81564 8.69664 -0.00219298 1
6.13144 -6.1544 0.0385193 1
-1.05154 4.35293 0.0208101 1
0.94248 8.38476 -0.000203251 1
-5.89232 1.11378 0.0881707 1
4.01973 -4.05459 0.0921622 1
4.11206 -5.04206 0.00205882 1
-0.320528 1.05305 0.0107724 1
-0.722087 -4.30388 0.0143204 1
0.651562 -4.11094 -0.0119792 1
-4.3505 1.75594 -0.00693069 1
-1.26551 9.65791 -0.0028481 1
3.18713 8.19068 -0.000739645 1
3.2896 9.4789 0.0306358 1
-0.921341 0.401524 0.014939 1
3.97953 -6.47202 0.019171 1
-2.53874 0.761539 0.00494505 1
2.31103 9.26868 0.00220588 1
0.708268 8.06181 -0.00511811 1
0.433654 1.22115 0.0102564 1
-4.83329 2.11257 -0.00207182 1
0.0404494 -3.48624 -0.00477528 1
-4.03345 -5.70608 0.00168919 1
-1.39102 1.99268 0.065884 1
-0.0733871 3.60484 0.00268817 1
-3.95636 -0.689254 0.0464912 1
1.98062 -5.28174 6.69715e-10 1
0.102987 3.02998 0.00696903 1
1.95049 -6.61193 -0.000490196 1
-2.25159 7.72793 -0.00182927 1
-0.216374 -1.14825 -0.00614035 1
1.77778 -6.23611 0.000694445 1
-3.36342 -5.48347 -0.000423727 1
7.24309 -5.38717 0.0351974 1
2.83457 -5.45053 -6.34092e-10 1
-0.766018 5.83937 -0.0001497 1
-1.53509 6.8956 0.00894886 1
-0.113926 6.28708 -0.000503356 1
0.999808 -2.38058 0.0105769 1
0.95463 -3.8787 -0.00787037 1
2.724 8.92275 0.00525 1
0.431667 8.95083 0.0372222 1
1.1905 8.76075 0.03975 1
2.36165 7.71817 -0.00108696 1
-2.00953 2.00751 0.0043722 1
0.731129 4.37952 0.0124194 1
-3.46027 0.936301 0.0543379 1
0.471396 -4.48581 -0.0268018 1
2.17911 -5.95719 8.16502e-10 1
-3.35238 0.504497 -0.00291005 1
-4.34186 -5.3064 0.00377907 1
-0.815 10.2762 0.00166667 1
-3.14498 8.30944 -0.000612745 1
2.15605 8.87395 0 1
-1.48696 -7.24839 0.0323214 1
-6.07361 -6.25278 -0.00472222 1
1.37905 -4.47466 -0.00101351 1
-6.09965 -5.31771 0.0652778 1
-1.26 5.60737 -0.000789473 1
-1.54426 9.97295 -0.00122951 1
1.12214 7.32214 8.51495e-10 1
-1.15716 7.91333 -0.00385463 1
-0.396893 7.28506 -0.000443787 1
5.56963 -4.55636 0.0162429 1
1.71213 -1.32354 0.0682748 1
-5.20461 -6.31885 0.000139665 1
-0.378646 -5.24505 -0.003125 1
-1.59048 5.97063 0.0542328 1
0.514286 -6.21 0 1
0.320506 -1.60758 -0.00449438 1
0.0686905 9.21964 0.00630953 1
1.12542 6.86362 0.0504213 1
-2.29537 3.29784 0.0191358 1
2.0019 -2.92851 0.0861111 1
1.865 -4.41803 -0.00257576 1
5.62811 -6.08457 0.0130383 1
2.09046 8.03914 -0.00230263 1
-0.795382 -4.97118 -0.00621019 1
1.59934 7.33075 -0.00022124 1
1.53417 6.99604 0.0208633 1
-5.63546 8.27758 0.0971467 1
4.04233 -5.57351 -5.90145e-10 1
-4.74985 2.6173 0.0210756 1
-3.63563 -7.00063 0.0314583 1
-2.03721 -6.03454 -0.0288168 1
-3.21763 1.25237 0.0673684 1
-0.259203 9.51662 0.0070055 1
-3.02197 7.01288 0.0308081 1
-1.781 7.94629 -0.00327511 1
-0.158537 7.79207 -0.000914634 1
-0.085119 5.39226 0.00327381 1
0.600699 0.638811 0.00979021 1
0.790894 -6.425 -0.000165563 1
-0.43773 2.08804 0.00460123 1
-0.600126 -7.04003 0.0253788 1
2.08369 -3.50403 0.0493644 1
-0.225 -3.12233 -0.0065508 1
4.39645 7.601 0.0771818 1
-1.75359 -4.89493 0.00631188 1
-4.78182 8.05162 -0.00487013 1
-0.476527 9.95363 -0.00286259 1
-0.486634 -0.634654 -0.00049505 1
1.61348 8.89987 -0.00170157 1
0.769138 7.59569 -0.000517242 1
2.55848 -4.91652 0 1
-4.50386 -0.381192 0.00151869 1
0.0302239 1.32127 0.00335821 1
-5.45047 -1.03121 0.0709627 1
-0.922931 1.33293 0.0146552 1
7.67424 -5.63442 0.0911255 1
3.31751 8.64057 -0.000748503 1
-1.81278 -3.13167 -0.00833333 1
1.37657 -2.02854 -0.00610236 1
0.443583 1.80294 0.00614973 1
0.101348 10.229 0.0780637 1
-0.700822 2.48439 -0.0064554 1
-4.25963 8.42086 0.0483957 1
0.0458092 9.82038 0.0102601 1
1.79361 7.75821 -0.00419708 1
2.36902 -5.52174 3.23938e-10 1
0.261612 -3.02145 -0.00806011 1
-4.54327 0.086218 0.00480769 1
-5.62177 -6.23226 -0.00134409 1
-2.25598 1.4188 0.00683761 1
1.11429 2.70794 0.0526455 1
1.4005 7.5925 -0.000500001 1
4.52363 -4.74505 0.00494506 1
-5.85806 7.80839 -0.0203226 1
0.535674 -5.7677 0 1
-2.39512 -6.49157 -0.00517752 1
-5.50071 -5.26099 0.0695035 1
0.0359873 -2.0414 -0.00350318 1
0.830106 0.187148 0.0096831 1
-1.0747 9.2771 0.00164671 1
0.827586 1.44885 0.00488506 1
-4.69092 -6.26194 0.00143312 1
1.01988 -5.40843 0.000602409 1
-2.09988 -7.28935 0.0343301 1
-6.28062 -7.09665 0.073445 1
-1.6905 0.235 0.033 1
0.580192 -1.98596 0.00596154 1
-1.0195 8.85665 0.0016055 1
1.00601 -3.51082 -0.0233173 1
6.93768 -4.53621 0.0329044 1
1.82784 -3.43068 0.00852272 1
-5.93651 7.40873 -0.0107143 1
-3.35616 -6.50514 0.00410959 1
-2.94987 0.895725 -0.00194301 1
-4.29327 -6.60096 0.0236538 1
1.32181 8.33493 -0.00159574 1
1.0408 4.94229 0.0708955 1
-5.80878 -6.789 -0.00122222 1
1.43895 -5.61337 0.00135659 1
-4.71475 -5.50233 -0.00015528 1
-0.320455 -0.0951299 0.00649351 1
-2.08465 2.49416 0.0186141 1
-2.56726 -6.8744 -0.000297619 1
1.42542 -2.71907 0.0059322 1
7.04607 -5.77173 0.00235602 1
-0.895475 5.26787 0.0020362 1
-4.85081 6.76834 0.0345779 1
7.61127 -5.20123 0.0901961 1
0.301154 -0.520385 0.00384616 1
-1.09139 8.39139 -0.00219595 1
-1.5012 8.86343 -0.012633 1
0.382083 2.29097 0.00597222 1
-5.06736 0.876231 0.00899015 1
-5.70888 2.26872 0.0127049 1
1.89283 -2.13314 0.0707364 1
3.69733 -6.04151 -0.00242718 1
-1.2269 0.96381 0.0719048 1
-3.58247 -5.96408 0.00316092 1
-3.13116 0.0264778 0.00751231 1
7.09892 -3.92047 0.0411638 1
-0.489264 1.48742 0.00981595 1
-1.03664 2.81627 -0.00595238 1
-4.36762 -0.824454 0.0394809 1
0.365523 7.05474 -0.000490196 1
6.70685 -4.85093 0.00166667 1
-3.91473 6.96284 0.0260811 1
0.579587 -3.65986 -0.0181193 1
-1.92108 6.98464 0.0313253 1
3.66209 -4.7899 -0.000165563 1
5.70904 -4.03983 0.00649718 1
6.47188 -4.50234 -0.00429688 1
3.765 9.59218 0.0434615 1
-5.25351 1.99181 -0.00116959 1
-1.89823 -5.47952 -0.0124194 1
0.0705357 -5.24762 -0.0014881 1
-0.475436 -4.68939 -0.012936 1
4.0127 -4.52757 0.0151351 1
0.381429 7.51643 0 1
6.025 -5.58099 -0.0014977 1
-1.20882 10.1818 -0.00176471 1
2.42083 8.34583 -0.000490196 1
-0.599576 10.6712 -0.00127119 1
-5.30306 -0.0755556 0.0336111 1
-3.80989 -5.40234 -0.000179857 1
-5.46196 1.66653 0.0278226 1
-0.00192308 7.42115 0 1
-3.07039 -0.599342 0.045614 1
0.436553 8.3911 -0.000189393 1
7.10505 -4.24725 0.0729358 1
-2.11294 -4.81584 0.0800872 1
3.42526 7.22912 0.046134 1
-1.8879 -6.77083 -0.0327381 1
4.24005 8.67986 0.0678241 1
6.26385 -4.10962 -0.00269231 1
1.12826 -3.07957 0.00260869 1
-1.51667 -5.40229 -0.00490196 1
-4.43264 2.88292 0.06125 1
5.43698 -6.98594 0.0015625 1
-1.75548 1.18676 0.0527397 1
-0.334091 -6.54605 -0.00801435 1
4.70793 -6.2039 0.0030914 1
-2.3146 -5.38138 -0.00855705 1
-0.00273438 8.73242 0.00859375 1
-5.02345 -1.16179 0.0944048 1
-2.02526 8.94691 0.0476804 1
-3.90862 1.63764 -0.00229885 1
-4.80905 -6.68021 0.00383436 1
-2.36295 8.66891 0.0647668 1
-2.98718 -5.67051 -1.91041e-10 1
-5.43529 7.3683 -0.00083732 1
-1.46721 5.11559 0.0431174 1
-0.56408 -5.69454 -0.00143678 1
-0.31443 -2.28154 -0.00872483 1
-0.999713 6.62902 0 1
-2.70236 3.01125 0.0595833 1
1.97917 -3.93594 0.075 1
0.629483 -0.31431 0.00431034 1
0.318715 6.06481 0.00139665 1
-3.68448 1.23621 0.0413793 1
-4.01606 2.14123 -0.00149007 1
-0.92197 -5.37591 -0.00621212 1
3.32966 9.05868 -0.000388601 1
-4.11102 -6.18207 0.0113487 1
0.144758 -4.03992 -0.016129 1
-2.20898 0.260912 -0.00538674 1
-0.305283 2.70915 -0.00373711 1
-6.40388 -5.69795 0.0260274 1
-0.406818 6.71364 0 1
-1.21355 7.16476 -8.9766e-10 1
